ply
format ascii 1.0
element vertex 855
property double x
property double y
property double z
end_header
0.000070931990009 -0.000372379812498 -0.000870381137237
0.000079752491568 -0.000372664296867 -0.000875202612403
0.000072033235028 -0.000365921361148 -0.000871542938482
0.000151745716111 -0.000660830873579 -0.000858036999010
0.000159408417612 -0.000661261378846 -0.000859518295598
0.000166366696443 -0.000658263773847 -0.000859344025411
0.000179855084764 -0.000660072098949 -0.000858036999010
0.000190944016269 -0.000660674873983 -0.000857601323543
0.000134199482454 -0.000649528626269 -0.000857601323543
0.000141050475938 -0.000651673588796 -0.000859997538611
0.000149820970699 -0.000651986875218 -0.000860312193115
0.000159164735583 -0.000652014750146 -0.000861958078212
0.000169703934471 -0.000651728498228 -0.000861522402745
0.000180100795430 -0.000652071257978 -0.000859924926033
0.000188917425776 -0.000652568512009 -0.000857601323543
0.000119000053753 -0.000638889026179 -0.000857601323543
0.000129715466679 -0.000642531599187 -0.000860215376344
0.000139699921780 -0.000642520394912 -0.000860769872393
0.000150006791960 -0.000642521761446 -0.000863918617812
0.000159695975430 -0.000641806242024 -0.000865540298717
0.000169447487928 -0.000642436921241 -0.000865733932258
0.000181464593644 -0.000642594677671 -0.000863825258784
0.000189127541721 -0.000642222478027 -0.000859344025411
0.000198566876437 -0.000640899707139 -0.000858908349944
0.000207156740217 -0.000637369083309 -0.000857601323543
0.000103800625053 -0.000629769368958 -0.000857601323543
0.000110647197966 -0.000630082083953 -0.000859344025411
0.000120259453283 -0.000633001916433 -0.000862393753679
0.000129339961003 -0.000632945945834 -0.000864572131013
0.000140513162371 -0.000634842770706 -0.000865153031635
0.000150760660286 -0.000635614087856 -0.000866314832880
0.000162571257874 -0.000635965086947 -0.000864572131013
0.000168856358077 -0.000635614087856 -0.000866314832880
0.000183716415849 -0.000635965086947 -0.000864572131013
0.000189798955300 -0.000634687549831 -0.000864920671386
0.000199968344385 -0.000632254624607 -0.000862512574260
0.000210476200384 -0.000631622010054 -0.000860339855049
0.000111494978945 -0.000622990260992 -0.000859692565784
0.000119826496160 -0.000622837902876 -0.000862103303367
0.000127220348638 -0.000622142244345 -0.000862331514326
0.000192983955132 -0.000619026364880 -0.000866314832880
0.000201088224452 -0.000623238047584 -0.000863177969519
0.000210422702063 -0.000622850971991 -0.000859819307738
0.000216276397437 -0.000625209540348 -0.000857601323543
0.000104144783204 -0.000611222140422 -0.000859344025411
0.000110382870497 -0.000612202754902 -0.000860215376344
0.000120048108560 -0.000612025285757 -0.000863327343965
0.000127524530069 -0.000615137417511 -0.000862829429145
0.000192983955132 -0.000611486490801 -0.000866314832880
0.000202223279900 -0.000611026835457 -0.000864074216193
0.000210351754079 -0.000612396996420 -0.000859126187677
0.000218100328881 -0.000613657974536 -0.000857601323543
0.000102798515149 -0.000601964483559 -0.000860215376344
0.000111054781469 -0.000602549552256 -0.000862132348398
0.000119590293288 -0.000602486054548 -0.000862480888772
0.000202652762070 -0.000602823589236 -0.000864074216193
0.000210465842546 -0.000602569907522 -0.000860215376344
0.000102855076971 -0.000591306277134 -0.000860505826656
0.000109990750369 -0.000592561119627 -0.000862103303367
0.000118597546073 -0.000591751610022 -0.000865269211760
0.000201884869835 -0.000593611664777 -0.000864959398094
0.000209873541156 -0.000591262516125 -0.000862512574260
0.000217492351733 -0.000591162820059 -0.000857601323543
0.000102973785706 -0.000582122279655 -0.000861086727278
0.000110478835621 -0.000583510197335 -0.000863875050266
0.000204861573823 -0.000578571086729 -0.000864572131013
0.000210266451414 -0.000581945426921 -0.000864223590639
0.000218589546003 -0.000582423459725 -0.000859095068001
0.000094680967832 -0.000572011539896 -0.000857601323543
0.000099449999225 -0.000573605062363 -0.000862393753679
0.000204861573823 -0.000574039981448 -0.000864572131013
0.000210160009456 -0.000572429349452 -0.000863177969519
0.000218100328881 -0.000572315528470 -0.000857601323543
0.000228511078235 -0.000568848814049 -0.000858472674477
0.000093341481676 -0.000561257477336 -0.000858472674477
0.000098379402930 -0.000561954640423 -0.000864572131013
0.000210432217102 -0.000564939217796 -0.000864862581324
0.000219696846553 -0.000562349745783 -0.000861667627901
0.000226823831064 -0.000562869152947 -0.000860041106158
0.000091298022130 -0.000551127438691 -0.000861783808025
0.000096115047095 -0.000554405191900 -0.000864572131013
0.000211079652924 -0.000548151548530 -0.000866314832880
0.000219769087855 -0.000551650688399 -0.000862442162064
0.000227700943100 -0.000550843626661 -0.000860796276967
0.000237555597618 -0.000549212396845 -0.000857601323543
0.000090970451383 -0.000542659105315 -0.000861667627901
0.000213033013288 -0.000543194093291 -0.000865733932258
0.000219949890578 -0.000542345818893 -0.000864378497472
0.000229044688972 -0.000541598963685 -0.000859592982820
0.000237689118017 -0.000542930030145 -0.000859344025411
0.000082521424872 -0.000527933196664 -0.000857601323543
0.000088951839593 -0.000533572958646 -0.000861667627901
0.000220498946336 -0.000533732117809 -0.000864862581324
0.000230755496815 -0.000532969231971 -0.000862195719375
0.000240476491742 -0.000531859519179 -0.000859660880296
0.000081761453437 -0.000521093453749 -0.000857601323543
0.000088506560503 -0.000523262974723 -0.000865319003242
0.000223090965949 -0.000524083504512 -0.000865733932258
0.000230625413714 -0.000522127541495 -0.000862538978834
0.000240820766418 -0.000521937512732 -0.000860651051811
0.000248195197708 -0.000521093453749 -0.000857601323543
0.000083087927925 -0.000510986527810 -0.000860215376344
0.000087301424188 -0.000512011727282 -0.000865733932258
0.000232461052308 -0.000513225734774 -0.000863410329768
0.000240796266880 -0.000512494151563 -0.000860312193115
0.000248701845332 -0.000514760358457 -0.000857601323543
0.000081569580796 -0.000503404366606 -0.000860215376344
0.000087425718015 -0.000504420278867 -0.000866314832880
0.000231979051695 -0.000500099715595 -0.000863700780079
0.000239781822797 -0.000503028032958 -0.000861403582163
0.000249715140578 -0.000502094167873 -0.000857601323543
0.000081189620610 -0.000493250158875 -0.000860796276967
0.000240212800639 -0.000492618844021 -0.000862611591412
0.000249042144583 -0.000491364855250 -0.000858908349944
0.000255794912059 -0.000491454567783 -0.000857601323543
0.000078348900684 -0.000482749598850 -0.000860738186905
0.000242923815623 -0.000482514527119 -0.000864572131013
0.000249450124776 -0.000482231051789 -0.000859344025411
0.000258884802722 -0.000481902696257 -0.000858472674477
0.000078163748664 -0.000472228846324 -0.000861958078212
0.000250108554984 -0.000472899339267 -0.000863603963309
0.000258973995310 -0.000473093530253 -0.000859924926033
0.000070900820795 -0.000462064160380 -0.000859977735181
0.000077409761256 -0.000465415433128 -0.000861958078212
0.000250387032880 -0.000461423254110 -0.000863177969519
0.000258995939269 -0.000462455940796 -0.000860360601500
0.000062666699192 -0.000451880266072 -0.000859344025411
0.000069755240930 -0.000451727415404 -0.000863797596849
0.000076367236031 -0.000451641160309 -0.000866314832880
0.000251685388665 -0.000452454126287 -0.000864572131013
0.000259522304102 -0.000451586317898 -0.000858995485037
0.000267954455019 -0.000448896167421 -0.000857601323543
0.000061242224691 -0.000442816395941 -0.000857601323543
0.000067558521303 -0.000443865984711 -0.000863875050266
0.000250824437491 -0.000442018806519 -0.000865269211760
0.000259353549646 -0.000443414202903 -0.000860699460196
0.000060186653690 -0.000432145152316 -0.000859561863144
0.000067618849392 -0.000429033075273 -0.000865443481946
0.000253193363480 -0.000433574122017 -0.000864572131013
0.000256214100334 -0.000435086086185 -0.000864572131013
0.000058707019026 -0.000421525748982 -0.000859731292492
0.000067114058412 -0.000421494685232 -0.000864572131013
0.000247271048507 -0.000424497613621 -0.000866314832880
0.000059542164659 -0.000412852792731 -0.000859592982820
0.000066560067960 -0.000413182536558 -0.000864136455546
0.000060685114645 -0.000403932130740 -0.000860389646531
0.000067879805152 -0.000402167101271 -0.000865269211760
0.000060380013096 -0.000392228356811 -0.000861086727278
0.000067317645784 -0.000393547747010 -0.000864136455546
0.000059876235877 -0.000382556046768 -0.000863047266879
0.000069041791867 -0.000381375415328 -0.000865070045832
0.000062475762452 -0.000376121015570 -0.000862829429145
0.000066314070592 -0.000376242419510 -0.000866314832880
0.000161644941657 -0.000679420867962 -0.000851211416697
0.000180791158535 -0.000678816018465 -0.000849468714829
0.000187866846051 -0.000678953762789 -0.000848887814207
0.000133014338716 -0.000669363425937 -0.000850630516074
0.000139226382726 -0.000669230468835 -0.000851211416697
0.000151133242086 -0.000669416813033 -0.000853070298688
0.000160772313599 -0.000672065248723 -0.000852179584401
0.000170270804146 -0.000671338697415 -0.000850920966385
0.000180525301378 -0.000672255466316 -0.000851356641852
0.000190488473833 -0.000671671888041 -0.000849468714829
0.000198590222521 -0.000671294208168 -0.000848887814207
0.000121587588538 -0.000660952500923 -0.000849468714829
0.000130433267821 -0.000662317100730 -0.000850879473484
0.000139546546790 -0.000662686762387 -0.000853147752105
0.000147078047913 -0.000662998795621 -0.000854464460182
0.000164349926137 -0.000665122139055 -0.000855858621676
0.000170551760399 -0.000662899001198 -0.000853898082075
0.000179393708858 -0.000663610602546 -0.000854464460182
0.000189873728085 -0.000662764464313 -0.000854309553350
0.000200220163776 -0.000662283220879 -0.000853244568875
0.000206340473449 -0.000658846665954 -0.000849759165141
0.000113019883611 -0.000651641642070 -0.000850049615452
0.000120810222414 -0.000651586403916 -0.000850804786261
0.000129983908337 -0.000653934497831 -0.000853026731142
0.000136947869481 -0.000655988120170 -0.000855858621676
0.000190292940345 -0.000653080657684 -0.000855224911906
0.000200671688404 -0.000653359509959 -0.000853922286268
0.000209670639554 -0.000650639070200 -0.000852373217942
0.000215441242686 -0.000648315544306 -0.000848887814207
0.000100720002450 -0.000638948579216 -0.000849759165141
0.000110727994337 -0.000641676114701 -0.000851405050237
0.000119269355715 -0.000643273706306 -0.000853535019186
0.000127507990218 -0.000647219462040 -0.000854115919809
0.000188707309831 -0.000646854101284 -0.000855858621676
0.000201807004877 -0.000645006201817 -0.000854987270742
0.000209828626964 -0.000642679892951 -0.000853941649622
0.000215441242686 -0.000639124078761 -0.000848887814207
0.000098787992297 -0.000632797997889 -0.000852124260532
0.000107684105416 -0.000635021621306 -0.000854115919809
0.000218773497815 -0.000631679254967 -0.000851719704741
0.000100286765389 -0.000623864768757 -0.000850879473484
0.000107854987685 -0.000621136715795 -0.000854987270742
0.000220736749322 -0.000622963254099 -0.000851897935614
0.000229113174965 -0.000622696659321 -0.000850132601255
0.000099086153226 -0.000613071859033 -0.000851792317319
0.000109545812826 -0.000616407371667 -0.000855858621676
0.000210020020563 -0.000616407371667 -0.000855858621676
0.000221238329925 -0.000612226451649 -0.000853680244342
0.000225090716087 -0.000609101209747 -0.000854115919809
0.000092888368754 -0.000599294394733 -0.000848887814207
0.000097951422922 -0.000602854316360 -0.000854987270742
0.000213064693525 -0.000601184006858 -0.000855858621676
0.000219983635437 -0.000601779409570 -0.000853825469498
0.000229329422657 -0.000601650282246 -0.000850049615452
0.000236887995624 -0.000602358216581 -0.000848887814207
0.000092888368754 -0.000593166751036 -0.000848887814207
0.000097367120979 -0.000592049987973 -0.000855858621676
0.000222691695707 -0.000593162292081 -0.000851626345713
0.000227696530079 -0.000593166751036 -0.000848887814207
0.000093246888570 -0.000583713647872 -0.000850630516074
0.000096895477520 -0.000583269074555 -0.000853535019186
0.000223137947104 -0.000580333626843 -0.000852721758315
0.000229452657710 -0.000582965277470 -0.000851501867008
0.000237909269574 -0.000578868915744 -0.000848887814207
0.000090995661690 -0.000571269584372 -0.000852082767630
0.000220062363691 -0.000574965415221 -0.000854696820431
0.000230789869404 -0.000573467142507 -0.000853341385646
0.000239698769724 -0.000571478506703 -0.000850630516074
0.000083945490863 -0.000562377511668 -0.000850049615452
0.000088535349315 -0.000562655968393 -0.000853680244342
0.000231190234856 -0.000561451599174 -0.000854115919809
0.000240367156290 -0.000561784236610 -0.000854503186890
0.000248647762493 -0.000560462750672 -0.000850630516074
0.000082993408543 -0.000553033327370 -0.000851327596821
0.000087865007834 -0.000555735656538 -0.000854115919809
0.000232185465522 -0.000553739640433 -0.000853825469498
0.000240638741291 -0.000553203575333 -0.000853026731142
0.000248690629669 -0.000553738427671 -0.000849759165141
0.000255270926714 -0.000550273245160 -0.000848887814207
0.000081514772161 -0.000542492861065 -0.000851405050237
0.000231332731296 -0.000545162024362 -0.000855858621676
0.000241865140706 -0.000543536220064 -0.000854115919809
0.000248334628274 -0.000541409170864 -0.000849883643845
0.000256855236173 -0.000547105732091 -0.000849759165141
0.000074634518713 -0.000531829165293 -0.000849468714829
0.000079782471544 -0.000532023245641 -0.000853418839062
0.000085188429131 -0.000537245874661 -0.000855858621676
0.000234377404257 -0.000537245874661 -0.000855858621676
0.000243511423143 -0.000537245874661 -0.000855858621676
0.000249426581220 -0.000531444549268 -0.000853147752105
0.000255375723783 -0.000530177350424 -0.000850630516074
0.000074505437664 -0.000519635026677 -0.000848887814207
0.000078907855246 -0.000523631782278 -0.000854987270742
0.000240466750181 -0.000518977836891 -0.000855858621676
0.000250621386528 -0.000522935796848 -0.000852721758315
0.000257959851662 -0.000521454521962 -0.000851211416697
0.000078867694765 -0.000512979409880 -0.000854813000556
0.000249962102172 -0.000512079897318 -0.000853535019186
0.000258481866798 -0.000513284426111 -0.000851405050237
0.000071204402601 -0.000502511262537 -0.000852373217942
0.000075860788673 -0.000502302316270 -0.000854987270742
0.000241989086662 -0.000500709799120 -0.000855858621676
0.000249465438140 -0.000502399133041 -0.000853767379435
0.000259410822820 -0.000502484459006 -0.000851166732033
0.000267554763501 -0.000501206904215 -0.000849468714829
0.000070565482448 -0.000491859407160 -0.000851792317319
0.000075667167101 -0.000491696992687 -0.000854115919809
0.000243511423143 -0.000494620453197 -0.000855858621676
0.000250209703658 -0.000491575780235 -0.000855858621676
0.000260596880999 -0.000491452440129 -0.000852760485023
0.000267526214107 -0.000488996808194 -0.000848887814207
0.000070630022972 -0.000482672473518 -0.000852082767630
0.000252645442028 -0.000482441761350 -0.000855858621676
0.000263279188543 -0.000483230839092 -0.000855422946209
0.000270764997736 -0.000482643590614 -0.000852566851482
0.000060736970788 -0.000471155522509 -0.000850281975701
0.000069212860421 -0.000473486699447 -0.000852566851482
0.000264673408202 -0.000473460295261 -0.000852954118564
0.000270988792369 -0.000472428181881 -0.000851422653287
0.000278569272620 -0.000473047394203 -0.000849236354580
0.000061354233709 -0.000461620243494 -0.000853244568875
0.000069965064323 -0.000467218396541 -0.000855858621676
0.000264801525024 -0.000462672115768 -0.000855422946209
0.000270512458072 -0.000461826950937 -0.000853767379435
0.000277537100002 -0.000462135755456 -0.000850194840607
0.000058027582622 -0.000452832316797 -0.000853680244342
0.000264824133875 -0.000453517368213 -0.000855858621676
0.000270160910365 -0.000453933741602 -0.000852721758315
0.000051949921110 -0.000439935828937 -0.000850630516074
0.000056954439525 -0.000442951842399 -0.000852373217942
0.000052049964999 -0.000432417146292 -0.000853147752105
0.000049621373420 -0.000420959665342 -0.000852373217942
0.000050246007706 -0.000412023765624 -0.000851501867008
0.000050653092023 -0.000403237732539 -0.000851598683778
0.000057786372476 -0.000400235591382 -0.000855858621676
0.000051818088207 -0.000393718890183 -0.000853244568875
0.000060831045437 -0.000397190918421 -0.000855858621676
0.000162114202675 -0.000705721991300 -0.000840174304870
0.000166626419972 -0.000702855211494 -0.000839302953937
0.000181967332615 -0.000699988431688 -0.000838431603003
0.000202068876273 -0.000699988431688 -0.000838431603003
0.000205161421451 -0.000699988431688 -0.000838431603003
0.000124755246819 -0.000690710796154 -0.000838431603003
0.000140918952808 -0.000690941157259 -0.000839593404248
0.000150395395275 -0.000690857941669 -0.000841419091918
0.000159120198265 -0.000692825838546 -0.000840827818071
0.000170284719482 -0.000692497329823 -0.000841219925991
0.000180946131471 -0.000693147731329 -0.000839520791670
0.000189372866313 -0.000691348672921 -0.000839427432641
0.000199188516715 -0.000693326640440 -0.000840367938411
0.000205221885656 -0.000693659214046 -0.000839012503625
0.000220624147341 -0.000687618250976 -0.000838431603003
0.000110323369321 -0.000682464009012 -0.000838431603003
0.000117339318695 -0.000677932169691 -0.000840174304870
0.000129174926325 -0.000677932169691 -0.000840174304870
0.000140708348168 -0.000683407003909 -0.000841481331271
0.000149444091756 -0.000683231241067 -0.000840609980337
0.000159273814822 -0.000683881281936 -0.000845402410472
0.000169480963161 -0.000683413212936 -0.000844356789352
0.000180010589879 -0.000683887425537 -0.000844313221805
0.000191170433502 -0.000683109358404 -0.000842207457049
0.000199591669394 -0.000683180347582 -0.000844046975687
0.000209580221171 -0.000682802412391 -0.000841336106115
0.000219212279989 -0.000681088799810 -0.000839883854559
0.000101816882986 -0.000670312492627 -0.000839738629403
0.000110064793472 -0.000670873753331 -0.000840174304870
0.000119052230879 -0.000671446992347 -0.000843224033138
0.000129001905762 -0.000673190873466 -0.000845111960161
0.000140427965555 -0.000675010323159 -0.000845153453063
0.000150498968012 -0.000675272245733 -0.000844966735005
0.000168140997165 -0.000675411665584 -0.000846564211717
0.000191679765959 -0.000675410069844 -0.000846564211717
0.000200152658821 -0.000674130158267 -0.000845153453063
0.000210725520757 -0.000672591175020 -0.000844589149601
0.000219426211350 -0.000671291303920 -0.000842207457049
0.000093829795038 -0.000659785344373 -0.000838431603003
0.000100891209187 -0.000661896849540 -0.000842885174442
0.000110186307775 -0.000661775679641 -0.000845184572739
0.000119124460878 -0.000663001080721 -0.000847145112340
0.000127818853243 -0.000667092559481 -0.000847145112340
0.000202999775456 -0.000667092559481 -0.000847145112340
0.000210841568290 -0.000662350215870 -0.000844610273260
0.000219780189688 -0.000661912275032 -0.000840464755182
0.000230145061501 -0.000659152473672 -0.000841336106115
0.000092042181851 -0.000650730410389 -0.000841045655804
0.000101197659457 -0.000652326895614 -0.000844434242768
0.000109407198823 -0.000652516666399 -0.000847145112340
0.000212036975975 -0.000655193058400 -0.000845402410472
0.000220468485564 -0.000652529218494 -0.000843485438418
0.000229293817097 -0.000652407110832 -0.000840392142604
0.000236086873232 -0.000647415163660 -0.000838431603003
0.000089595508869 -0.000642377283097 -0.000840392142604
0.000099534849936 -0.000643726279602 -0.000846370578176
0.000220464731020 -0.000642378490950 -0.000844464032544
0.000228428653448 -0.000641056169499 -0.000839302953937
0.000084736206633 -0.000630240240079 -0.000839302953937
0.000090331875112 -0.000630888812866 -0.000843950158916
0.000222869399768 -0.000633508572035 -0.000846273761406
0.000230753101339 -0.000631874200890 -0.000843410751195
0.000239217567096 -0.000631415831257 -0.000838929517822
0.000084674857590 -0.000622565781241 -0.000839012503625
0.000090210772767 -0.000621760889710 -0.000843369258294
0.000095598458008 -0.000621063423432 -0.000847145112340
0.000232744632557 -0.000620694328644 -0.000844966735005
0.000238812555835 -0.000621606376432 -0.000839427432641
0.000245424088133 -0.000620969785377 -0.000839302953937
0.000084797555676 -0.000613193486377 -0.000839593404248
0.000089850657210 -0.000612832657525 -0.000841626556426
0.000095598458008 -0.000614926205292 -0.000847145112340
0.000230446086785 -0.000612234999499 -0.000845015143391
0.000239464960224 -0.000612716104636 -0.000842304273819
0.000248625448721 -0.000612951869982 -0.000840948839034
0.000083536955432 -0.000600855641751 -0.000839477224123
0.000090107392237 -0.000603736132160 -0.000844356789352
0.000231734054617 -0.000602881823735 -0.000845750950846
0.000239987361396 -0.000603164887363 -0.000844095384072
0.000250290429380 -0.000602244551982 -0.000838867278470
0.000083377172655 -0.000591475744780 -0.000840174304870
0.000090181353694 -0.000592651741733 -0.000845692860783
0.000231990202730 -0.000592232572606 -0.000845111960161
0.000239533035712 -0.000592535029269 -0.000843224033138
0.000250221341793 -0.000591225803938 -0.000841771781582
0.000260452569338 -0.000591328481864 -0.000838649440736
0.000080598350068 -0.000581594121449 -0.000840174304870
0.000087193140426 -0.000581693185022 -0.000843659708605
0.000233685866156 -0.000584240114593 -0.000847145112340
0.000240742665689 -0.000582411874649 -0.000845692860783
0.000250330128213 -0.000581713259438 -0.000843514483449
0.000260102906481 -0.000580024678707 -0.000839302953937
0.000072181978791 -0.000570101534207 -0.000838431603003
0.000079553789676 -0.000572289031198 -0.000842134844471
0.000085840489410 -0.000573873290391 -0.000844531059539
0.000242891693365 -0.000571965678313 -0.000847145112340
0.000249869696899 -0.000572288006298 -0.000842867571393
0.000259951957138 -0.000573496482857 -0.000841142472574
0.000072181978791 -0.000560823898673 -0.000838431603003
0.000077894847233 -0.000563264232775 -0.000843369258294
0.000251386776938 -0.000565236057453 -0.000843950158916
0.000260141808097 -0.000562695806781 -0.000841283296968
0.000268212874030 -0.000562427745580 -0.000841917006738
0.000282475050904 -0.000557731353494 -0.000838431603003
0.000072956465082 -0.000552665802790 -0.000841917006738
0.000077494560663 -0.000552500145773 -0.000845750950846
0.000250563216040 -0.000551252567091 -0.000847145112340
0.000260634405370 -0.000552890754335 -0.000844240609227
0.000268143096285 -0.000551808570969 -0.000840464755182
0.000278763996690 -0.000552164772174 -0.000838431603003
0.000071642955826 -0.000541295021616 -0.000841568466364
0.000077186803589 -0.000541279587613 -0.000847145112340
0.000251497956969 -0.000542466499431 -0.000845692860783
0.000260496787109 -0.000541983500683 -0.000843659708605
0.000270260799043 -0.000541897117928 -0.000841723373197
0.000277320808941 -0.000543299475996 -0.000838431603003
0.000068657105212 -0.000532474418940 -0.000843369258294
0.000260596796956 -0.000532563588921 -0.000845402410472
0.000270278236232 -0.000532603184564 -0.000842110640278
0.000062141231404 -0.000521542128118 -0.000839593404248
0.000069444424182 -0.000522916720301 -0.000843078807982
0.000261769564928 -0.000523975345218 -0.000846273761406
0.000270305721799 -0.000523298974630 -0.000842691540901
0.000279099595821 -0.000522530614919 -0.000839980671329
0.000285567596082 -0.000517528266179 -0.000838431603003
0.000052853571428 -0.000511343175822 -0.000838431603003
0.000060646968627 -0.000511765332175 -0.000840697115430
0.000070271585337 -0.000513050275122 -0.000845402410472
0.000264258912600 -0.000512322402008 -0.000844966735005
0.000269993990479 -0.000511601838982 -0.000842614087485
0.000278172087373 -0.000510666607363 -0.000839128683750
0.000288171583750 -0.000512298258454 -0.000839302953937
0.000052957563047 -0.000502803586248 -0.000838867278470
0.000060259089473 -0.000501916498121 -0.000840367938411
0.000067980976379 -0.000498319060634 -0.000847145112340
0.000261303347785 -0.000501387669704 -0.000847145112340
0.000271938856397 -0.000501569233063 -0.000844821509850
0.000279082053712 -0.000501510102897 -0.000840609980337
0.000285624520935 -0.000500386087193 -0.000840174304870
0.000054042674198 -0.000489578934345 -0.000840174304870
0.000060845568272 -0.000492479735339 -0.000842885174442
0.000264371956855 -0.000495250451564 -0.000847145112340
0.000270804774561 -0.000492704176247 -0.000845184572739
0.000279472235281 -0.000492627351978 -0.000840755205493
0.000288356566781 -0.000492219517929 -0.000841045655804
0.000052497199479 -0.000483405014173 -0.000840174304870
0.000061389551969 -0.000483094738381 -0.000845208776931
0.000279598376975 -0.000483169163720 -0.000844046975687
0.000287864642486 -0.000483343728617 -0.000841170134509
0.000051797167250 -0.000472121149794 -0.000839399770707
0.000059898274450 -0.000476936073488 -0.000845402410472
0.000280547667600 -0.000471641652557 -0.000845900325291
0.000287723369752 -0.000475109333541 -0.000841336106115
0.000050718398769 -0.000462767876158 -0.000841336106115
0.000055706540099 -0.000461495751795 -0.000847145112340
0.000042287375402 -0.000451553969045 -0.000838431603003
0.000049811235428 -0.000451372788664 -0.000843950158916
0.000040454624300 -0.000442645970851 -0.000840174304870
0.000048762780432 -0.000444000453663 -0.000845651367882
0.000040360956838 -0.000433969035888 -0.000841917006738
0.000045783499322 -0.000431870190262 -0.000844240609227
0.000039643724008 -0.000421246228429 -0.000842788357671
0.000046070384749 -0.000424688336531 -0.000845402410472
0.000030948043083 -0.000414443426908 -0.000838431603003
0.000039331736253 -0.000412391474778 -0.000843078807982
0.000039806293866 -0.000403540713137 -0.000843441870872
0.000043432103819 -0.000397054961326 -0.000847145112340
0.000046285548819 -0.000392433664790 -0.000846273761406
0.000483364232890 -0.000741529978302 -0.000828411067266
0.000490502859525 -0.000741766476625 -0.000828672472546
0.000503714842524 -0.000741656025848 -0.000827975391799
0.000171299746427 -0.000727610317562 -0.000827975391799
0.000483426597223 -0.000736974123086 -0.000827975391799
0.000130301806383 -0.000719131637404 -0.000828556292422
0.000139617540907 -0.000721923371811 -0.000829220178847
0.000150715079097 -0.000721990611759 -0.000828971221438
0.000160981630410 -0.000720566375708 -0.000829500255933
0.000169332624396 -0.000721830800623 -0.000830105360748
0.000179470664084 -0.000721102728041 -0.000830879894911
0.000189215131600 -0.000718590272849 -0.000829021012919
0.000202113148498 -0.000718974744194 -0.000829137193044
0.000208293625569 -0.000719131637404 -0.000828556292422
0.000120545413898 -0.000709949644175 -0.000828672472546
0.000129294836120 -0.000711801167037 -0.000828749925962
0.000139117297322 -0.000713486342554 -0.000829876521109
0.000149942871181 -0.000712004421829 -0.000832913047090
0.000160447837844 -0.000711575422941 -0.000834697241859
0.000170816188485 -0.000712985300747 -0.000832705582582
0.000179595709505 -0.000712894254630 -0.000834946199268
0.000190353489821 -0.000711898119977 -0.000830763714787
0.000200531895681 -0.000710655489155 -0.000830492627830
0.000209925444213 -0.000711613816459 -0.000827975391799
0.000216558139792 -0.000712003975022 -0.000827975391799
0.000112372773479 -0.000701928481981 -0.000828323932173
0.000120107867904 -0.000702201404678 -0.000829718093666
0.000129658027200 -0.000701906767143 -0.000830879894911
0.000140199652883 -0.000702084103241 -0.000831302368091
0.000149892017324 -0.000702943200628 -0.000830879894911
0.000159755967828 -0.000703087083234 -0.000835720733432
0.000171120999948 -0.000704251141388 -0.000835381874735
0.000179569903645 -0.000704796963302 -0.000835195156678
0.000188846929834 -0.000703087460133 -0.000834946199268
0.000199144042628 -0.000702866764656 -0.000835236649580
0.000211006443140 -0.000702258699742 -0.000831025120067
0.000219567192234 -0.000701481374629 -0.000831025120067
0.000228477155503 -0.000700592540761 -0.000828672472546
0.000093444900025 -0.000691503129207 -0.000828846742733
0.000100024414359 -0.000691079124987 -0.000830589444600
0.000110413921853 -0.000691461547400 -0.000832854957028
0.000120693669245 -0.000691513732903 -0.000835164037002
0.000130479447944 -0.000691377007194 -0.000835720733432
0.000136838716041 -0.000694235723191 -0.000836688901136
0.000150776711840 -0.000697333055590 -0.000836688901136
0.000161617375239 -0.000697333055590 -0.000836688901136
0.000170909372438 -0.000697333055590 -0.000836688901136
0.000177104037238 -0.000697333055590 -0.000836688901136
0.000189493366837 -0.000695010056291 -0.000836688901136
0.000210696014556 -0.000692186409352 -0.000834946199268
0.000220311627938 -0.000691955545588 -0.000834946199268
0.000227912054627 -0.000694180880779 -0.000829369553293
0.000090927082347 -0.000681571607069 -0.000827975391799
0.000100365381029 -0.000682880273891 -0.000832332146467
0.000109756793462 -0.000682313674296 -0.000834728361535
0.000121131530677 -0.000683028563781 -0.000835444114088
0.000130394752685 -0.000683741814212 -0.000835236649580
0.000146130713240 -0.000681846393591 -0.000836688901136
0.000223309574426 -0.000682535115211 -0.000833784398023
0.000229156637466 -0.000681511905097 -0.000829330826585
0.000236879765194 -0.000682249812759 -0.000828411067266
0.000082343593950 -0.000668306215911 -0.000827975391799
0.000089168127264 -0.000672344740021 -0.000830807282333
0.000097808479835 -0.000674516084926 -0.000833552037775
0.000107414058243 -0.000675651728792 -0.000836688901136
0.000223462243711 -0.000672820310597 -0.000835527099891
0.000229204335747 -0.000672027376481 -0.000829911727207
0.000081316900546 -0.000661214464074 -0.000829021012919
0.000089313287060 -0.000662647911423 -0.000833203497401
0.000222480689339 -0.000664424608947 -0.000836108000513
0.000228842456897 -0.000664422438740 -0.000834946199268
0.000238993990965 -0.000659794567753 -0.000828846742733
0.000248847775805 -0.000660896681919 -0.000828556292422
0.000072066850898 -0.000650498836521 -0.000828556292422
0.000080087063095 -0.000651847364942 -0.000832041696156
0.000090257627698 -0.000655126228786 -0.000836108000513
0.000231307354234 -0.000650873069594 -0.000836688901136
0.000240649006672 -0.000652255079552 -0.000831460795534
0.000247808948709 -0.000652579682193 -0.000828556292422
0.000073362244350 -0.000639868587470 -0.000829718093666
0.000080678534235 -0.000641939180509 -0.000832985659668
0.000232856020434 -0.000641581072394 -0.000836688901136
0.000240424559200 -0.000642079118976 -0.000834220073490
0.000249417237760 -0.000643853135656 -0.000829282418200
0.000259064525076 -0.000642500257247 -0.000829021012919
0.000266498435919 -0.000640214799339 -0.000827975391799
0.000072321821514 -0.000634672856252 -0.000829718093666
0.000079126277619 -0.000632611279148 -0.000832985659668
0.000239050685233 -0.000633837741395 -0.000836688901136
0.000248996485260 -0.000632819978075 -0.000832332146467
0.000260363024357 -0.000631257979463 -0.000829935931400
0.000269648253822 -0.000628659531408 -0.000828556292422
0.000078598682111 -0.000622249313976 -0.000832332146467
0.000240599351433 -0.000626094410396 -0.000836688901136
0.000250657608083 -0.000623791182321 -0.000834074848335
0.000260032344749 -0.000621822829975 -0.000829543823480
0.000268763935900 -0.000621794965609 -0.000828722264028
0.000070832458618 -0.000611973016136 -0.000828846742733
0.000079168560840 -0.000611968358853 -0.000833950369630
0.000252962481765 -0.000612234589926 -0.000836253225669
0.000260354313010 -0.000611822383547 -0.000829718093666
0.000269257405442 -0.000612709311340 -0.000829718093666
0.000072581927223 -0.000603249932356 -0.000829718093666
0.000079168953665 -0.000603076376423 -0.000833552037775
0.000249340194209 -0.000602442854660 -0.000836108000513
0.000260493452543 -0.000602055302473 -0.000832235329697
0.000269683660113 -0.000602536577821 -0.000829330826585
0.000275862241443 -0.000602759577243 -0.000827975391799
0.000073617214966 -0.000592940028220 -0.000830879894911
0.000077485842175 -0.000592391221131 -0.000834365298646
0.000263738909027 -0.000595400277164 -0.000834946199268
0.000268857716204 -0.000592522090093 -0.000830713923305
0.000285226046967 -0.000596517040228 -0.000827975391799
0.000071929095404 -0.000583687637301 -0.000830298994289
0.000077989400445 -0.000585829089199 -0.000836688901136
0.000261314346906 -0.000584695130435 -0.000835991820389
0.000269883447893 -0.000583195117300 -0.000833590764483
0.000277966849288 -0.000581865237768 -0.000828556292422
0.000063615982902 -0.000573107526418 -0.000827975391799
0.000069785407075 -0.000573531355107 -0.000832332146467
0.000263829344431 -0.000570342427200 -0.000836688901136
0.000269937538082 -0.000572580166082 -0.000834787771826
0.000278399721038 -0.000572211528740 -0.000830686261370
0.000060792327586 -0.000560454947501 -0.000829282418200
0.000069230681545 -0.000563320415608 -0.000833552037775
0.000271509280648 -0.000561753832433 -0.000835236649580
0.000278729341993 -0.000562122576158 -0.000831460795534
0.000286911171723 -0.000560119937731 -0.000831896471001
0.000061596106647 -0.000552562762632 -0.000830066634040
0.000067725858157 -0.000551088987727 -0.000835817550202
0.000272270934792 -0.000552746132369 -0.000834946199268
0.000280026233845 -0.000551193875753 -0.000834946199268
0.000286885102908 -0.000554005028044 -0.000831025120067
0.000059336482821 -0.000543256071854 -0.000829718093666
0.000066175995152 -0.000543340869506 -0.000835817550202
0.000280255882452 -0.000542246925532 -0.000834074848335
0.000288389462706 -0.000543302688754 -0.000829330826585
0.000053780244691 -0.000531616724354 -0.000829282418200
0.000059806673700 -0.000532706056637 -0.000832705582582
0.000279223675286 -0.000533441544093 -0.000834171665105
0.000288693119560 -0.000532743779944 -0.000830034948551
0.000051425611192 -0.000520627590063 -0.000831809335907
0.000058541146903 -0.000521505068640 -0.000835643280015
0.000271534638561 -0.000517767531516 -0.000835817550202
0.000280304117700 -0.000520896236175 -0.000835527099891
0.000288871638585 -0.000521403085926 -0.000833784398023
0.000297711120999 -0.000518485327529 -0.000827975391799
0.000047403927570 -0.000511793940612 -0.000833203497401
0.000280802960556 -0.000512417380486 -0.000834946199268
0.000292134038110 -0.000510758145423 -0.000833203497401
0.000299606547683 -0.000510904321640 -0.000829021012919
0.000039750094876 -0.000500439943436 -0.000829282418200
0.000047574143937 -0.000501797609067 -0.000833900578148
0.000282351626756 -0.000505438808143 -0.000834946199268
0.000290994998508 -0.000502784389489 -0.000833203497401
0.000299798262665 -0.000502336975755 -0.000828265842110
0.000308635560777 -0.000499757716481 -0.000827975391799
0.000039907162421 -0.000493855810801 -0.000829469136257
0.000049036533513 -0.000493493852392 -0.000833857010601
0.000293953849751 -0.000493894375291 -0.000833639172868
0.000299598992490 -0.000494715201887 -0.000828672472546
0.000307074926523 -0.000496636447973 -0.000827975391799
0.000041659243413 -0.000481531882856 -0.000830066634040
0.000046377765069 -0.000482231123598 -0.000834074848335
0.000293521172282 -0.000483724928237 -0.000834946199268
0.000298863275992 -0.000485905284290 -0.000833203497401
0.000032403297822 -0.000468545031401 -0.000827975391799
0.000039461336449 -0.000471502768418 -0.000831267161993
0.000047016076447 -0.000472776456607 -0.000836688901136
0.000039993676027 -0.000462075388591 -0.000833397130942
0.000047016076447 -0.000458838460808 -0.000836688901136
0.000031584611114 -0.000452842784855 -0.000830879894911
0.000039406517655 -0.000453907277841 -0.000835991820389
0.000047016076447 -0.000455741128408 -0.000836688901136
0.000031658726082 -0.000443494681418 -0.000831170345223
0.000037724079248 -0.000446449131209 -0.000836688901136
0.000029852018118 -0.000432170102445 -0.000831302368091
0.000037284176665 -0.000429436877418 -0.000834946199268
0.000022435571842 -0.000422332793699 -0.000830415174413
0.000029934721848 -0.000422134504243 -0.000833950369630
0.000029980748249 -0.000410829808612 -0.000836688901136
0.000454984057093 -0.000741516813442 -0.000817519180595
0.000461001430862 -0.000742428066400 -0.000819842783085
0.000469906041300 -0.000741262792824 -0.000823909087442
0.000477539097319 -0.000740844496036 -0.000825361338998
0.000492336268950 -0.000738373906693 -0.000825797014465
0.000500090977294 -0.000740362245006 -0.000825485817703
0.000510566990195 -0.000741148622907 -0.000824296354524
0.000520288158357 -0.000742735257094 -0.000820133233396
0.000528064217197 -0.000746294652126 -0.000822747286197
0.000122963384973 -0.000730011587935 -0.000819261882463
0.000131017537507 -0.000729691418552 -0.000820423683707
0.000140907067733 -0.000728890995094 -0.000823328186820
0.000150748725742 -0.000728090571637 -0.000826232689932
0.000160126892931 -0.000728090571637 -0.000826232689932
0.000170836429542 -0.000731701668663 -0.000824489988064
0.000179958534230 -0.000730741352002 -0.000822311610730
0.000190852672889 -0.000730940659996 -0.000821585484952
0.000200174452192 -0.000731180787034 -0.000820714134019
0.000209741279796 -0.000730779777434 -0.000822166385575
0.000219208634520 -0.000730617299132 -0.000822747286197
0.000228330931095 -0.000731584190244 -0.000819261882463
0.000428734125111 -0.000732591836569 -0.000817519180595
0.000451834065255 -0.000733191835014 -0.000817519180595
0.000460999835122 -0.000732992984465 -0.000819842783085
0.000470006272955 -0.000732075731523 -0.000823134553279
0.000479197274671 -0.000731646711358 -0.000824683621605
0.000489802574125 -0.000732073609672 -0.000824173133179
0.000500308854010 -0.000732077327264 -0.000823134553279
0.000510059466510 -0.000732669623601 -0.000821004584330
0.000517091905202 -0.000735322340132 -0.000822747286197
0.000091336866125 -0.000717661322065 -0.000818390531529
0.000100308830377 -0.000719682870018 -0.000818680981840
0.000109227424289 -0.000720732069427 -0.000818680981840
0.000120985610178 -0.000722345331204 -0.000821440259797
0.000128147004520 -0.000723196658786 -0.000825070888687
0.000144496614283 -0.000723401488042 -0.000826232689932
0.000157000837201 -0.000724964515907 -0.000826232689932
0.000183359801347 -0.000725439982760 -0.000824489988064
0.000191121657298 -0.000724034645976 -0.000823909087442
0.000199993974734 -0.000723514434558 -0.000823909087442
0.000211044217112 -0.000723275105391 -0.000824780438376
0.000219209166433 -0.000722781947094 -0.000822747286197
0.000230443049354 -0.000722659844301 -0.000821406746299
0.000237666803580 -0.000722500389313 -0.000817954856062
0.000251846111652 -0.000720886569027 -0.000818100081218
0.000256534571312 -0.000717891874659 -0.000817519180595
0.000451801265606 -0.000722538415811 -0.000817809630906
0.000460911111416 -0.000723790625332 -0.000817712814136
0.000471041399594 -0.000723227855513 -0.000818172693795
0.000479823010390 -0.000722242999555 -0.000822398745824
0.000488916799220 -0.000721284865867 -0.000822456835886
0.000498955622216 -0.000722319863185 -0.000820212447117
0.000506031137320 -0.000724744016478 -0.000818390531529
0.000090330690275 -0.000710749603272 -0.000819261882463
0.000099070480091 -0.000711846844730 -0.000820008754691
0.000109887775437 -0.000712924533807 -0.000822965123931
0.000118314754598 -0.000715381216271 -0.000824054312598
0.000135118447094 -0.000709334237259 -0.000826232689932
0.000200765617416 -0.000715586348718 -0.000826232689932
0.000213102809384 -0.000716047453906 -0.000824489988064
0.000219776729524 -0.000712859571209 -0.000824707825798
0.000229745066647 -0.000713127614277 -0.000822588858755
0.000240943971209 -0.000711013403121 -0.000819759797282
0.000250320351776 -0.000711240168491 -0.000818874615381
0.000256634581159 -0.000714285564855 -0.000819261882463
0.000457927676593 -0.000714285564855 -0.000819261882463
0.000491208963227 -0.000714741882821 -0.000817519180595
0.000496523584696 -0.000714397250736 -0.000818826206996
0.000082679175793 -0.000701137029776 -0.000818390531529
0.000090043919286 -0.000701912976854 -0.000822000413968
0.000100485672140 -0.000703518241691 -0.000822965123931
0.000107518112096 -0.000704195106958 -0.000824925663531
0.000222648007523 -0.000706208181529 -0.000826232689932
0.000231320755263 -0.000705760225243 -0.000823909087442
0.000240533477958 -0.000701597930419 -0.000821955148985
0.000250454354620 -0.000701663121498 -0.000821004584330
0.000256684586083 -0.000699915953153 -0.000820133233396
0.000070685052883 -0.000689541948119 -0.000817519180595
0.000080552288105 -0.000692208047594 -0.000819510839872
0.000089656092783 -0.000691895920743 -0.000824489988064
0.000100618710425 -0.000696974141627 -0.000825651789309
0.000106983945528 -0.000696830014341 -0.000826232689932
0.000231496511722 -0.000691392065665 -0.000824489988064
0.000240099447554 -0.000691441256544 -0.000823856278295
0.000250552860801 -0.000692093403210 -0.000822573016010
0.000257447081581 -0.000692948535037 -0.000819697557929
0.000072703055898 -0.000682766242272 -0.000819552332774
0.000080501171520 -0.000681842946792 -0.000823494158426
0.000089090369819 -0.000682968582173 -0.000825361338998
0.000241344164131 -0.000680621846233 -0.000825361338998
0.000250578176108 -0.000681972308159 -0.000822940919738
0.000259255585006 -0.000681785915025 -0.000819261882463
0.000268554014316 -0.000681109774224 -0.000818564801716
0.000275434522339 -0.000680091972606 -0.000817519180595
0.000064385069207 -0.000667492005254 -0.000817519180595
0.000071197841514 -0.000673249788207 -0.000821658097530
0.000079059718682 -0.000672149971908 -0.000824780438376
0.000235018710042 -0.000669084809638 -0.000824489988064
0.000240077347128 -0.000672715229631 -0.000823539423410
0.000250624752583 -0.000672389737244 -0.000823715453901
0.000259875008401 -0.000672372864948 -0.000821004584330
0.000269502632922 -0.000672250277258 -0.000819261882463
0.000278645838486 -0.000671716858911 -0.000819103455020
0.000064777099574 -0.000662389688688 -0.000819261882463
0.000070935158542 -0.000663648741657 -0.000822747286197
0.000076515223414 -0.000662698145336 -0.000825070888687
0.000240780044316 -0.000664846267429 -0.000824780438376
0.000251789595309 -0.000663090984743 -0.000825651789309
0.000258767912334 -0.000661211521528 -0.000819842783085
0.000270112661737 -0.000660817086380 -0.000819261882463
0.000276750590844 -0.000660263032497 -0.000818913342089
0.000291184481528 -0.000661192021579 -0.000817519180595
0.000300634457041 -0.000659617025660 -0.000817519180595
0.000310084432555 -0.000664342013417 -0.000817519180595
0.000061235077369 -0.000648592054228 -0.000817519180595
0.000067574230776 -0.000653588545840 -0.000823743115836
0.000252148621773 -0.000653738253659 -0.000823037736508
0.000259497129061 -0.000653005817867 -0.000822249371378
0.000269608550201 -0.000651775819914 -0.000819261882463
0.000278584514177 -0.000653842040624 -0.000817519180595
0.000290396983568 -0.000652529544025 -0.000817519180595
0.000060134765114 -0.000641523587437 -0.000818216261342
0.000068690475604 -0.000642684516344 -0.000824296354524
0.000075723388232 -0.000646813122667 -0.000826232689932
0.000252309806727 -0.000642241038769 -0.000825651789309
0.000261202694854 -0.000642124039073 -0.000826232689932
0.000269451657522 -0.000641641965854 -0.000824296354524
0.000279689129665 -0.000640432554094 -0.000818971432151
0.000291230236196 -0.000641947454424 -0.000819261882463
0.000299854009462 -0.000639844220512 -0.000817954856062
0.000307992242763 -0.000640078267778 -0.000818100081218
0.000062415751438 -0.000632733074045 -0.000818100081218
0.000069016301622 -0.000631049791172 -0.000824199537753
0.000250782509089 -0.000634308899749 -0.000826232689932
0.000263286732008 -0.000634308899749 -0.000826232689932
0.000270116495481 -0.000633260459912 -0.000825187068811
0.000280327310592 -0.000631985613216 -0.000822021160419
0.000291212383051 -0.000632657733814 -0.000818487348299
0.000300277820399 -0.000632860118928 -0.000819479720196
0.000308837526956 -0.000633271068395 -0.000818564801716
0.000328984383581 -0.000635992086877 -0.000817519180595
0.000063598021246 -0.000622133654701 -0.000818680981840
0.000070713995627 -0.000622071644224 -0.000824780438376
0.000270580862043 -0.000622846695407 -0.000826232689932
0.000279414967876 -0.000622754653092 -0.000822747286197
0.000290151479176 -0.000622416535980 -0.000821321439215
0.000298547054471 -0.000621187891194 -0.000818100081218
0.000061142010190 -0.000611836676063 -0.000820568908863
0.000068454035259 -0.000612731551404 -0.000824489988064
0.000271063834462 -0.000609449623738 -0.000825361338998
0.000279420181639 -0.000613004365591 -0.000822921556384
0.000290517397751 -0.000612683391955 -0.000821730710108
0.000299875291056 -0.000616074899124 -0.000818826206996
0.000051785101856 -0.000604492168499 -0.000817519180595
0.000061334281766 -0.000603631282432 -0.000817954856062
0.000066970309636 -0.000602881325864 -0.000823444366944
0.000281570447331 -0.000603839741998 -0.000823836474864
0.000290327160505 -0.000602747015574 -0.000820481773770
0.000302552653667 -0.000600429157750 -0.000819261882463
0.000308194437452 -0.000600712178293 -0.000817519180595
0.000063402906061 -0.000591490170274 -0.000820133233396
0.000067441580968 -0.000592337604249 -0.000822747286197
0.000272664899196 -0.000595233203129 -0.000826232689932
0.000279118302881 -0.000592879186985 -0.000824014705737
0.000289668768352 -0.000591421683545 -0.000823685664126
0.000300693103698 -0.000591415010895 -0.000820617317248
0.000306934440717 -0.000591892201148 -0.000817519180595
0.000054935093694 -0.000585592217472 -0.000817519180595
0.000059276818538 -0.000581070919157 -0.000820755626920
0.000065561160309 -0.000581678057402 -0.000822747286197
0.000280959906426 -0.000582381332175 -0.000825070888687
0.000289801766760 -0.000581463749446 -0.000824199537753
0.000300703626011 -0.000581934375886 -0.000821004584330
0.000309052351452 -0.000581183505491 -0.000818971432151
0.000050771812673 -0.000572219630846 -0.000818564801716
0.000058795610438 -0.000571582782648 -0.000824489988064
0.000283489850934 -0.000569133940969 -0.000822747286197
0.000290201393360 -0.000572488059938 -0.000823222568525
0.000300720889264 -0.000572373443214 -0.000821972752034
0.000310106725050 -0.000572722995499 -0.000819455516003
0.000316384416230 -0.000574567246040 -0.000817519180595
0.000050829268428 -0.000563205669097 -0.000820133233396
0.000059770868291 -0.000563845095099 -0.000824838528438
0.000291404673976 -0.000563276679551 -0.000825579176732
0.000300316194767 -0.000562668343361 -0.000821222422063
0.000309559433915 -0.000563542274607 -0.000817519180595
0.000050456540139 -0.000553169322762 -0.000821875935263
0.000058009072431 -0.000554073469356 -0.000826232689932
0.000291371554780 -0.000552488627718 -0.000824272150331
0.000300687487090 -0.000552183362551 -0.000820278458552
0.000309392181157 -0.000551201732116 -0.000818293714758
0.000316384416230 -0.000547792315418 -0.000817519180595
0.000043186208180 -0.000539536081493 -0.000821004584330
0.000050486312828 -0.000541409589404 -0.000823967177504
0.000294494085319 -0.000542338712529 -0.000824054312598
0.000300716160021 -0.000541023162746 -0.000821779118493
0.000310092711256 -0.000541407076645 -0.000818293714758
0.000317174177349 -0.000541444076549 -0.000817954856062
0.000040901977397 -0.000531981207452 -0.000818100081218
0.000048253126114 -0.000530770142505 -0.000823792907318
0.000294504726116 -0.000531324528302 -0.000824489988064
0.000300781605596 -0.000531249379561 -0.000825264522228
0.000310131561156 -0.000531605102043 -0.000821779118493
0.000316390451321 -0.000531921654415 -0.000818680981840
0.000041970616915 -0.000522130860635 -0.000822456835886
0.000048943931292 -0.000524981491547 -0.000825361338998
0.000293462707539 -0.000524024015304 -0.000824489988064
0.000301173064954 -0.000522243799173 -0.000825361338998
0.000309231798290 -0.000521769580417 -0.000821502499149
0.000316384416230 -0.000519442388878 -0.000817519180595
0.000038904314488 -0.000512694193598 -0.000822747286197
0.000302340080680 -0.000514070599606 -0.000824925663531
0.000310136174442 -0.000512724853093 -0.000822360019116
0.000316402521502 -0.000512840937899 -0.000821004584330
0.000030983893309 -0.000502243586635 -0.000819958963209
0.000038672584237 -0.000505284148969 -0.000823909087442
